X,Y,Z,Nx,Ny,Nz,I,J,K,IncAngle,LateralDensity,DirectionDensity,ExposureTime,Rnom,PointDev
-4.28942,-3.46312,5.75041,-0.5415694262329831,-0.42838913124715655,0.7233154974138076,8.14835e-05,0.00122949,0.999999,0.7630316431191094,75,2,0.6,8.0,-0.033850413223462716
-4.25002,-3.46322,5.77761,-0.5356723490079931,-0.4302419541291319,0.7265996114886142,8.14835e-05,0.00122949,0.999999,0.7582704747160797,75,2,0.6,8.0,-0.0352438781278428
-4.20882,-3.46331,5.80441,-0.5292691814487042,-0.43059123277073147,0.7310713534461601,8.14835e-05,0.00122949,0.999999,0.7517450466175869,75,2,0.6,8.0,-0.03759725983419049
-3.41112,-3.46521,6.32541,-0.43767368157878644,-0.4260845931132874,0.791766170005233,8.14835e-05,0.00122949,0.999999,0.6580177346960967,75,2,0.6,8.0,-0.021639788365030554
-3.42552,0.29848,7.17861,-0.43367005468640707,0.04330735777174608,0.9000304197254216,8.14835e-05,0.00122949,0.999999,0.4509174932147333,75,2,0.6,8.0,-0.04036941102792113
-3.85832,0.299587,6.96381,-0.49417408877539526,0.04257547261381762,0.868319813844368,8.14835e-05,0.00122949,0.999999,0.5189685323012904,75,2,0.6,8.0,-0.03312888838604344
-4.61512,0.301387,6.46381,-0.5715181340225957,0.03872155423647193,0.8196753404372017,8.14835e-05,0.00122949,0.999999,0.6099515773373726,75,2,0.6,8.0,-0.0519809729550218
-1.41782,-3.88812,6.82751,-0.17365532794141725,-0.4889063185941588,0.8548768558782405,8.14835e-05,0.00122949,0.999999,0.5466688251445454,75,2,0.6,8.0,-0.016104742238911562
-1.37892,-3.88822,6.83801,-0.17019519172936745,-0.4869983831942044,0.8566598925352082,8.14835e-05,0.00122949,0.999999,0.5432240733153699,75,2,0.6,8.0,-0.013883553635096746
-1.30102,-3.88852,6.84531,-0.15967113236053393,-0.48609441496033196,0.8591957572259522,8.14835e-05,0.00122949,0.999999,0.5382942004128537,75,2,0.6,8.0,-0.020557047832223674
-1.18522,-3.88881,6.84991,-0.14278127687267142,-0.48764968056791796,0.8612846776859653,8.14835e-05,0.00122949,0.999999,0.5342066734038341,75,2,0.6,8.0,-0.03452093891396846
-1.10722,-3.88912,6.85851,-0.1377582743485118,-0.48233047379700117,0.865089574492307,8.14835e-05,0.00122949,0.999999,0.5266720641144562,75,2,0.6,8.0,-0.03819430512776201
-1.06822,-3.88922,6.86431,-0.13631494719802967,-0.4830788089055811,0.8649006298741858,8.14835e-05,0.00122949,0.999999,0.5270494279369743,75,2,0.6,8.0,-0.038475149011968135
-0.874416,-3.88981,6.89121,-0.1238619370965527,-0.48019875977223647,0.8683705267061381,8.14835e-05,0.00122949,0.999999,0.5201002258867963,75,2,0.6,8.0,-0.03859306144598573
0.0551836,-1.44381,7.85021,0.003350398590395892,-0.17815606596434322,0.9839965401308045,8.14835e-05,0.00122949,0.999999,0.18037200406811987,75,2,0.6,8.0,-0.0179307451069457
-0.0601164,-1.44342,7.86531,-0.00500547247218678,-0.17587540761124718,0.9843997085751843,8.14835e-05,0.00122949,0.999999,0.1780986262720904,75,2,0.6,8.0,-0.0031145641538063984
-0.560016,-1.44182,7.83511,-0.059767269009451084,-0.17422677675075077,0.9828900771796386,8.14835e-05,0.00122949,0.999999,0.18644052739435232,75,2,0.6,8.0,-0.013673463678309794
-0.675816,-1.44142,7.83671,-0.07933507789104365,-0.1691079620366026,0.9823993294948083,8.14835e-05,0.00122949,0.999999,0.18904470687185468,75,2,0.6,8.0,-0.0032229925828239914
-0.713716,-1.44132,7.82491,-0.0896074547552389,-0.16958989025724883,0.9814325107590548,8.14835e-05,0.00122949,0.999999,0.1941295857208855,75,2,0.6,8.0,-0.011507627896487627
-1.02192,-1.44042,7.80711,-0.13336021378405236,-0.17521802541163337,0.9754556355623356,8.14835e-05,0.00122949,0.999999,0.22304417430184964,75,2,0.6,8.0,0.004379851987286187
-1.17582,-1.43992,7.78341,-0.14793119677042132,-0.17803990413476564,0.9728402507903106,8.14835e-05,0.00122949,0.999999,0.23459501292632398,75,2,0.6,8.0,0.0023367529053661684
-1.25262,-1.43972,7.78091,-0.15796227178751035,-0.1742303470004838,0.9719525229535749,8.14835e-05,0.00122949,0.999999,0.23836762969378825,75,2,0.6,8.0,0.011517395031980016
-1.33042,-1.43952,7.75331,-0.1696447437555448,-0.1758273327160282,0.9696934618662141,8.14835e-05,0.00122949,0.999999,0.24776591605883674,75,2,0.6,8.0,-0.0027472740384153482
-1.48492,-1.43902,7.69591,-0.19477047387453203,-0.17289269629767431,0.9654908482598944,8.14835e-05,0.00122949,0.999999,0.2643533036144479,75,2,0.6,8.0,-0.031135796432468332
-1.67782,-1.43852,7.65841,-0.2161534673340692,-0.17897131742966546,0.9598161001446837,8.14835e-05,0.00122949,0.999999,0.28529839106898736,75,2,0.6,8.0,-0.029073863665527888
-1.79362,-1.43811,7.64091,-0.2336060755287849,-0.18043675458060404,0.9554427136529214,8.14835e-05,0.00122949,0.999999,0.30045777235634735,75,2,0.6,8.0,-0.020730691059488215
-1.90972,-1.43782,7.60231,-0.25133888021091694,-0.18194957580373364,0.9506435289629671,8.14835e-05,0.00122949,0.999999,0.3162813277427497,75,2,0.6,8.0,-0.03071683481506593
-2.25882,-1.43682,7.48951,-0.2882075960521238,-0.18654327215030841,0.9392220127282537,8.14835e-05,0.00122949,0.999999,0.35117702656710653,75,2,0.6,8.0,-0.04641718815350426
-2.41452,-1.43641,7.44391,-0.3065826345724867,-0.18557688358661298,0.93357822835415,8.14835e-05,0.00122949,0.999999,0.36723297750384415,75,2,0.6,8.0,-0.04355754079752128
-2.76512,-1.43541,7.30551,-0.35131395245025065,-0.1794429288670732,0.9189008336558356,8.14835e-05,0.00122949,0.999999,0.40614438456395535,75,2,0.6,8.0,-0.05791168252329193
-2.80402,-1.43531,7.29081,-0.3551123097921835,-0.18167168359003427,0.917000897936105,8.14835e-05,0.00122949,0.999999,0.41093454898883136,75,2,0.6,8.0,-0.05779920849390763
-2.92042,-1.43502,7.25681,-0.37337735603433475,-0.17583916864933485,0.9108621941707321,8.14835e-05,0.00122949,0.999999,0.42602678970182994,75,2,0.6,8.0,-0.04704917952462129
-3.11522,-1.43441,7.19761,-0.39276420363384057,-0.1739373840509883,0.9030404568862761,8.14835e-05,0.00122949,0.999999,0.44457410540720604,75,2,0.6,8.0,-0.027063438820047914
-3.23332,-1.43412,7.14311,-0.4031210547596307,-0.17302170892328347,0.8986416991497498,8.14835e-05,0.00122949,0.999999,0.45469404752472814,75,2,0.6,8.0,-0.029110534645458763
-3.46932,-1.43351,7.01731,-0.44334698565559577,-0.16889966618045313,0.8802933335395811,8.14835e-05,0.00122949,0.999999,0.4948312070426995,75,2,0.6,8.0,-0.04174819331531854
-3.86362,-1.43251,6.81401,-0.48787564802570316,-0.1767589046056256,0.8548295980522198,8.14835e-05,0.00122949,0.999999,0.5460704276269819,75,2,0.6,8.0,-0.03693672732660058
-4.26032,-1.43161,6.55721,-0.5329881083708385,-0.1785570894160107,0.8270677373435371,8.14835e-05,0.00122949,0.999999,0.5973942195276244,75,2,0.6,8.0,-0.050356191715253296
-4.57772,-1.43081,6.37961,-0.5797416217605531,-0.1802030387670297,0.7946235063333906,8.14835e-05,0.00122949,0.999999,0.6528527668100301,75,2,0.6,8.0,-0.018636619812377297
-3.05642,-3.46611,6.49681,-0.38888487349805845,-0.4334472952530018,0.812952641549467,8.14835e-05,0.00122949,0.999999,0.6225615844329323,75,2,0.6,8.0,-0.0272864139867659
-2.85852,-3.46662,6.61901,-0.362334548194327,-0.43152575330537124,0.826135097559137,8.14835e-05,0.00122949,0.999999,0.5995769919311658,75,2,0.6,8.0,-7.237822023498097e-06
-2.77982,-3.46682,6.63791,-0.35688825392154067,-0.43040876518542875,0.8290832702837443,8.14835e-05,0.00122949,0.999999,0.5943290656713772,75,2,0.6,8.0,-0.012003423079101516
-2.74122,-3.46692,6.64701,-0.3524943365369396,-0.4308395046166977,0.8307376625451751,8.14835e-05,0.00122949,0.999999,0.5913683650424278,75,2,0.6,8.0,-0.01773444973796945
-2.62372,-3.46721,6.68141,-0.34121446042740977,-0.42905370570872975,0.8363525629857532,8.14835e-05,0.00122949,0.999999,0.5812142281810112,75,2,0.6,8.0,-0.028382133431131606
-2.34982,-3.46801,6.77811,-0.2925208879484981,-0.43504959445659247,0.8515652532113888,8.14835e-05,0.00122949,0.999999,0.5528985994505736,75,2,0.6,8.0,-0.0318432141052849
-1.72612,-3.46972,6.97941,-0.21631596779623793,-0.43008641282146903,0.876489064154675,8.14835e-05,0.00122949,0.999999,0.5034113186790082,75,2,0.6,8.0,-0.016854562210457225
-1.60952,-3.47012,6.99651,-0.19393818868597826,-0.4371934181962032,0.878208343193756,8.14835e-05,0.00122949,0.999999,0.4998502444672585,75,2,0.6,8.0,-0.026077525778169353
-0.486516,-3.89092,6.96281,-0.08315869413489357,-0.4747822816527675,0.8761657472295817,8.14835e-05,0.00122949,0.999999,0.5041724163160356,75,2,0.6,8.0,-0.00896256042083099
-0.370416,-3.89132,6.95931,-0.061292471152386944,-0.47999661544005245,0.875126552074686,8.14835e-05,0.00122949,0.999999,0.5063289575680198,75,2,0.6,8.0,-0.0180469162268313
-0.215416,-3.89182,6.95571,-0.04734739964355104,-0.48177357853057284,0.875015681446247,8.14835e-05,0.00122949,0.999999,0.506559684651725,75,2,0.6,8.0,-0.026633799357012045
-0.176716,-3.89192,6.95701,-0.04427969242848309,-0.48045909323182434,0.8758986063291183,8.14835e-05,0.00122949,0.999999,0.5047330129814507,75,2,0.6,8.0,-0.026402444871198583
-0.521716,-1.85872,7.74921,-0.0709912220411973,-0.23137187215977703,0.9702717676848983,8.14835e-05,0.00122949,0.999999,0.2456445778053535,75,2,0.6,8.0,-0.013931928216740275
-0.714116,-1.85811,7.74721,-0.10597124951601965,-0.24045497963375412,0.964858278217762,8.14835e-05,0.00122949,0.999999,0.26705108220356755,75,2,0.6,8.0,-0.00113775480187428
-0.829816,-1.85772,7.74291,-0.1166479899709644,-0.24450838700620153,0.9626052644357184,8.14835e-05,0.00122949,0.999999,0.27548123572771804,75,2,0.6,8.0,0.005771259557445063
-0.945316,-1.85732,7.72531,-0.12813271401939821,-0.24779450654159865,0.9603019786118473,8.14835e-05,0.00122949,0.999999,0.28384357658729825,75,2,0.6,8.0,0.0014795205859279292
-1.06092,-1.85701,7.68801,-0.14092260404840418,-0.2498233587176695,0.9579817895488616,8.14835e-05,0.00122949,0.999999,0.2920265072120648,75,2,0.6,8.0,-0.020054188993511524
-1.13872,-1.85682,7.65561,-0.15242984191409156,-0.24757926488417234,0.9568017824468441,8.14835e-05,0.00122949,0.999999,0.29609146782006646,75,2,0.6,8.0,-0.04055101009498241
-0.0213164,-1.38472,7.86171,-0.007050375196722168,-0.17315825984427763,0.9848687776842594,8.14835e-05,0.00122949,0.999999,0.1754129376903263,75,2,0.6,8.0,-0.01724433598215569
-0.367316,-1.38362,7.85271,-0.03560763075580958,-0.16822751785595527,0.9851048669395468,8.14835e-05,0.00122949,0.999999,0.1740333319337067,75,2,0.6,8.0,-0.01787123053279771
-0.944516,-1.38182,7.80441,-0.12662852438936031,-0.1669077065285248,0.9778072582632842,8.14835e-05,0.00122949,0.999999,0.21210002980686998,75,2,0.6,8.0,-0.018123501659775165
-1.13682,-1.38121,7.78431,-0.14521208692388615,-0.16829346981898305,0.9749824397534023,8.14835e-05,0.00122949,0.999999,0.22513959955361545,75,2,0.6,8.0,-0.012786283527903564
-1.48422,-1.38022,7.72311,-0.19312461241829784,-0.16426319875709658,0.9673264627892533,8.14835e-05,0.00122949,0.999999,0.2571920687334267,75,2,0.6,8.0,-0.0153682408704654
-1.56082,-1.38002,7.72301,-0.2024515109298733,-0.1604195257035469,0.9660636425698157,8.14835e-05,0.00122949,0.999999,0.2620953687345821,75,2,0.6,8.0,-0.0009064430461869222
-1.59942,-1.37982,7.72441,-0.2073463891888327,-0.16159326244641276,0.9648290482890105,8.14835e-05,0.00122949,0.999999,0.26682563097050044,75,2,0.6,8.0,0.00803080768924147
-1.63802,-1.37972,7.71971,-0.21061851648500454,-0.16450754105519616,0.963627059317882,8.14835e-05,0.00122949,0.999999,0.27136128712827656,75,2,0.6,8.0,0.011283248200626872
-1.75442,-1.37941,7.66641,-0.22534571230801947,-0.17023770835171878,0.9592905881950194,8.14835e-05,0.00122949,0.999999,0.2871244152596648,75,2,0.6,8.0,-0.01535199444584201
-2.06392,-1.37851,7.59721,-0.2679204690865124,-0.1764351418749404,0.9471479625465247,8.14835e-05,0.00122949,0.999999,0.32731655760018846,75,2,0.6,8.0,-0.007650197182308638
-2.21972,-1.37812,7.53421,-0.2820769598561286,-0.17930629389996033,0.9424870512034557,8.14835e-05,0.00122949,0.999999,0.34153128767483915,75,2,0.6,8.0,-0.02562278689426467
-2.41382,-1.37751,7.47131,-0.3033903046018104,-0.1770716396654224,0.9362691693630735,8.14835e-05,0.00122949,0.999999,0.35963304507429206,75,2,0.6,8.0,-0.02851745855264376
-2.64732,-1.37692,7.36591,-0.33263733620242647,-0.1747339336435144,0.926725663288558,8.14835e-05,0.00122949,0.999999,0.38583897545739265,75,2,0.6,8.0,-0.05262043206064071
-1.25222,-0.065518,7.85711,-0.17366410435644722,-0.02213301679851995,0.9845561987136485,8.14835e-05,0.00122949,0.999999,0.17621604120450182,75,2,0.6,8.0,-0.043460231430751506
-2.99762,-1.37602,7.24841,-0.3846620189605522,-0.16642671435719628,0.9079302175373722,8.14835e-05,0.00122949,0.999999,0.4330416671691174,75,2,0.6,8.0,-0.03642013709286651
-3.34952,-1.37502,7.10961,-0.42020476791713623,-0.1616091820571954,0.892922407208213,8.14835e-05,0.00122949,0.999999,0.467519801663027,75,2,0.6,8.0,-0.021496469706865362
-3.50832,-1.37462,7.00121,-0.447918147316802,-0.1638512007011637,0.878932373583469,8.14835e-05,0.00122949,0.999999,0.49767730083509487,75,2,0.6,8.0,-0.049224513866587216
-3.58572,-1.37442,6.97111,-0.4542630650456095,-0.1675602947593545,0.8749677796099274,8.14835e-05,0.00122949,0.999999,0.5059301411992553,75,2,0.6,8.0,-0.041181439001137576
-3.70482,-1.37412,6.90921,-0.470511383200206,-0.1748303558402976,0.864900794863656,8.14835e-05,0.00122949,0.999999,0.526349340371021,75,2,0.6,8.0,-0.04066084207363385
-3.82352,-1.37381,6.84731,-0.48507928482448354,-0.1707543754586156,0.8576368874389125,8.14835e-05,0.00122949,0.999999,0.5406257952908422,75,2,0.6,8.0,-0.03807100367002736
-3.94132,-1.37352,6.79441,-0.49479931319949416,-0.16967042872721252,0.8522825736062146,8.14835e-05,0.00122949,0.999999,0.5509396542900828,75,2,0.6,8.0,-0.02600678575031612
-3.97992,-1.37342,6.77581,-0.5010105374057751,-0.16764176955267118,0.8490492791997563,8.14835e-05,0.00122949,0.999999,0.557081633923772,75,2,0.6,8.0,-0.02267921800182382
-4.25882,-1.37272,6.59021,-0.5306408131769844,-0.16724210087418123,0.8309334552694692,8.14835e-05,0.00122949,0.999999,0.590461260318549,75,2,0.6,8.0,-0.03427493351044664
-4.37882,-1.37242,6.51281,-0.5457882555041595,-0.1710181300152455,0.8202853036351528,8.14835e-05,0.00122949,0.999999,0.6093329913424455,75,2,0.6,8.0,-0.03292429150444143
-4.49922,-1.37222,6.42561,-0.5656388009219832,-0.17005473709596994,0.8069288278917551,8.14835e-05,0.00122949,0.999999,0.6322954228479598,75,2,0.6,8.0,-0.03668208540560691
-4.53852,-1.37211,6.39611,-0.5705534841943743,-0.17193016891042748,0.8030621013919732,8.14835e-05,0.00122949,0.999999,0.6388137531662648,75,2,0.6,8.0,-0.03814891029730383
-0.950716,-3.47212,7.09961,-0.12328420365041122,-0.4388015347415231,0.890086635243316,8.14835e-05,0.00122949,0.999999,0.47446687962403244,75,2,0.6,8.0,-0.03985299387278918
-0.911516,-3.47222,7.10761,-0.12088561957447562,-0.4362682000698437,0.8916595340083086,8.14835e-05,0.00122949,0.999999,0.4710051496209623,75,2,0.6,8.0,-0.037255934116933176
-0.369716,-3.47381,7.18571,-0.06914750669027904,-0.42942965610177947,0.9004492172126229,8.14835e-05,0.00122949,0.999999,0.4512219601558513,75,2,0.6,8.0,-0.010101750281421573
-0.137716,-3.47461,7.15641,-0.0350240355036307,-0.4338469249682346,0.9003055940249662,8.14835e-05,0.00122949,0.999999,0.4515572835635821,75,2,0.6,8.0,-0.04348792266008061
0.0555837,-3.47522,7.20121,0.008509428270911657,-0.4334906196121125,0.9011179014639588,8.14835e-05,0.00122949,0.999999,0.4496830067357696,75,2,0.6,8.0,-0.0038966327213048046
-0.483016,-1.32361,7.86241,-0.04767337627735019,-0.16089970099881853,0.9858187132595978,8.14835e-05,0.00122949,0.999999,0.16981377580459056,75,2,0.6,8.0,-0.012338333626292552
-0.752016,-1.32282,7.83181,-0.09313441001422525,-0.15286259071749195,0.9838490788888501,8.14835e-05,0.00122949,0.999999,0.18106315835608597,75,2,0.6,8.0,-0.02174024659788376
-0.829116,-1.32261,7.83011,-0.10326063666000981,-0.1500012388036726,0.9832786325726464,8.14835e-05,0.00122949,0.999999,0.18418933299585105,75,2,0.6,8.0,-0.015806041580902708
-0.906216,-1.32232,7.81801,-0.11643128881602403,-0.15467228241361072,0.9810811587415201,8.14835e-05,0.00122949,0.999999,0.19585953188306196,75,2,0.6,8.0,-0.019333487661823412
-1.09862,-1.32171,7.79401,-0.13636628018350902,-0.15764108884644112,0.9780355436977847,8.14835e-05,0.00122949,0.999999,0.210962249950478,75,2,0.6,8.0,-0.018742260232413877
-1.33012,-1.32112,7.72921,-0.1759135678542924,-0.15379477042898132,0.9723176359778065,8.14835e-05,0.00122949,0.999999,0.23671547333406137,75,2,0.6,8.0,-0.04668217076043213
-2.41422,-1.31801,7.44371,-0.3060408872636663,-0.17140007551081066,0.9364619530113096,8.14835e-05,0.00122949,0.999999,0.3590656285202988,75,2,0.6,8.0,-0.06435716954196558
-2.49192,-1.31781,7.41521,-0.31569649567648805,-0.16712238472741736,0.9340266758185262,8.14835e-05,0.00122949,0.999999,0.365920573469273,75,2,0.6,8.0,-0.06705427810072528
-2.72472,-1.31712,7.37801,-0.3469026116698151,-0.16004403259202285,0.924145273021696,8.14835e-05,0.00122949,0.999999,0.39259454472190225,75,2,0.6,8.0,-0.02541940081486249
-3.19242,-1.31582,7.20021,-0.3992827288225614,-0.1613259177299244,0.9025227148014651,8.14835e-05,0.00122949,0.999999,0.4457417011574701,75,2,0.6,8.0,-0.014641412378527008
-3.27082,-1.31562,7.15411,-0.41134971510380547,-0.15860149666414683,0.8975728255355722,8.14835e-05,0.00122949,0.999999,0.4570831205182224,75,2,0.6,8.0,-0.024386584788603116
-3.31102,-1.31552,7.12211,-0.41747195605692816,-0.15730815830237824,0.8949700046579865,8.14835e-05,0.00122949,0.999999,0.46294340386538446,75,2,0.6,8.0,-0.03646453119595883
-3.39102,-1.31532,7.05231,-0.43172609830751396,-0.1557491799829652,0.8884563967774698,8.14835e-05,0.00122949,0.999999,0.47732054956318665,75,2,0.6,8.0,-0.06500411601240863
-3.50772,-1.31501,7.00871,-0.4469578762348299,-0.1588127123827511,0.8803449206176429,8.14835e-05,0.00122949,0.999999,0.4946970634203082,75,2,0.6,8.0,-0.05296490742616644
-3.54692,-1.31492,6.99741,-0.4503313475877707,-0.159432703999792,0.8785117473745567,8.14835e-05,0.00122949,0.999999,0.4985467399565627,75,2,0.6,8.0,-0.04554195429380581
-3.58652,-1.31482,6.98281,-0.4526637145807672,-0.16041703244717948,0.8771327933687021,8.14835e-05,0.00122949,0.999999,0.5014259944885707,75,2,0.6,8.0,-0.040633640866881926
-3.70412,-1.31452,6.92711,-0.4667844047741054,-0.16683722562253936,0.868491600193265,8.14835e-05,0.00122949,0.999999,0.5191367644239115,75,2,0.6,8.0,-0.03549620146364685
-3.74392,-1.31442,6.90551,-0.4750440542886124,-0.1647782853699035,0.8643964733590671,8.14835e-05,0.00122949,0.999999,0.52732851340966,75,2,0.6,8.0,-0.035660400077103915
-3.94082,-1.31392,6.79451,-0.4971948690339135,-0.15914820094613197,0.8529179986035933,8.14835e-05,0.00122949,0.999999,0.5497002356331068,75,2,0.6,8.0,-0.036218600507671006
-4.33982,-1.31292,6.54501,-0.5407746721159443,-0.16455998499181307,0.8249137926701112,8.14835e-05,0.00122949,0.999999,0.6011835094976726,75,2,0.6,8.0,-0.03790527192121296
-4.54022,-1.31252,6.40441,-0.5709427705744095,-0.1621779658992146,0.8048121893371214,8.14835e-05,0.00122949,0.999999,0.635852601792222,75,2,0.6,8.0,-0.04055442591005587
-2.37822,-2.03262,7.33771,-0.2971262985848517,-0.2555003005778108,0.9200193253915452,8.14835e-05,0.00122949,0.999999,0.40353084183825355,75,2,0.6,8.0,-0.023192212614120855
-2.26052,-2.03292,7.39201,-0.28352847764985434,-0.25310586078017566,0.9249589318452371,8.14835e-05,0.00122949,0.999999,0.3907492724016662,75,2,0.6,8.0,-0.0072203685513763105
-2.06752,-2.03341,7.42511,-0.263691286677128,-0.2525369343983013,0.9309629434597646,8.14835e-05,0.00122949,0.999999,0.3746650340829626,75,2,0.6,8.0,-0.028698118211806012
-4.30842,-2.20781,6.31051,-0.5420622968906392,-0.27490272811977673,0.7941013514419609,8.14835e-05,0.00122949,0.999999,0.6538982477240641,75,2,0.6,8.0,-0.04641940050897553
-0.0216164,-1.26371,7.87321,-0.010827805247406739,-0.1637396759448557,0.9864441581534141,8.14835e-05,0.00122949,0.999999,0.16607502110613775,75,2,0.6,8.0,-0.02598809024284421
-0.252316,-1.26302,7.86011,-0.0238072556329875,-0.16356166109665463,0.986245809926982,8.14835e-05,0.00122949,0.999999,0.16727563124536488,75,2,0.6,8.0,-0.035063584914440504
-0.329316,-1.26271,7.84341,-0.033540419355574745,-0.15589036199199816,0.9872047585518701,8.14835e-05,0.00122949,0.999999,0.16136054307217484,75,2,0.6,8.0,-0.04877581751992022
-0.367716,-1.26262,7.83641,-0.03852720072511914,-0.1508276311392535,0.9878090303743976,8.14835e-05,0.00122949,0.999999,0.1575178080863039,75,2,0.6,8.0,-0.05401069663720204
-0.406116,-1.26252,7.83591,-0.04054670620471328,-0.15339151837264448,0.9873332804617108,8.14835e-05,0.00122949,0.999999,0.1605429649028922,75,2,0.6,8.0,-0.05264997096793245
-0.598216,-1.26191,7.85031,-0.0749489622225962,-0.1501037882403956,0.9858252917315716,8.14835e-05,0.00122949,0.999999,0.16970942718446452,75,2,0.6,8.0,-0.026440799313269814
-0.636816,-1.26172,7.85661,-0.08188836895725121,-0.14825570230449686,0.9855529117017114,8.14835e-05,0.00122949,0.999999,0.17130460545753393,75,2,0.6,8.0,-0.017281624136049167
-0.829216,-1.26111,7.83981,-0.10483269998968327,-0.14701754163486494,0.983562884346758,8.14835e-05,0.00122949,0.999999,0.18261130073222845,75,2,0.6,8.0,-0.01622780617733266
-1.02122,-1.26052,7.84441,-0.13403099593044265,-0.14822489149985044,0.9798291043185802,8.14835e-05,0.00122949,0.999999,0.20215984071131235,75,2,0.6,8.0,0.010403810476724118
-1.13732,-1.26022,7.81551,-0.142585151609859,-0.14416963526938076,0.9792265268091379,8.14835e-05,0.00122949,0.999999,0.2051182300150701,75,2,0.6,8.0,-0.002259832246361171
-1.67712,-1.25862,7.68311,-0.21280388601638042,-0.14703053306195288,0.9659692171305696,8.14835e-05,0.00122949,0.999999,0.2623993485020623,75,2,0.6,8.0,-0.035890817492517435
-2.18092,-1.25721,7.56431,-0.27854017203463516,-0.1558747329794577,0.9476911101099866,8.14835e-05,0.00122949,0.999999,0.3255466090803511,75,2,0.6,8.0,-0.027812420257536274
-2.33522,-1.25672,7.52861,-0.29513232703213205,-0.15942698277272924,0.9420615408265972,8.14835e-05,0.00122949,0.999999,0.3427299120805649,75,2,0.6,8.0,-0.017984832205591772
-2.56922,-1.25612,7.42801,-0.3301205335396963,-0.15151176774507552,0.9316998537996175,8.14835e-05,0.00122949,0.999999,0.37231979273987,75,2,0.6,8.0,-0.04047354279791371
-2.76212,-1.25551,7.37181,-0.3499849895379196,-0.14567438223455362,0.9253591094589837,8.14835e-05,0.00122949,0.999999,0.38936370727419567,75,2,0.6,8.0,-0.028225107882185796
-2.80232,-1.25541,7.36211,-0.35546255448714204,-0.14783137212020725,0.9229259221489732,8.14835e-05,0.00122949,0.999999,0.3957323568859045,75,2,0.6,8.0,-0.023176365081147843
-2.99702,-1.25492,7.28881,-0.3823760384369538,-0.15679926213019013,0.9106055988322767,8.14835e-05,0.00122949,0.999999,0.42659247614295565,75,2,0.6,8.0,-0.019792966163096004
-3.50852,-1.25361,7.02641,-0.4463511736193818,-0.15502454588303496,0.8813274192843199,8.14835e-05,0.00122949,0.999999,0.49261368422767077,75,2,0.6,8.0,-0.046907009810585265
-3.74452,-1.25302,6.90661,-0.47366254029138016,-0.15634625149490097,0.8667177438867915,8.14835e-05,0.00122949,0.999999,0.5226763180433772,75,2,0.6,8.0,-0.044325871247616
-3.98172,-1.25242,6.76871,-0.5018425453561293,-0.15463122390205,0.8510248200052896,8.14835e-05,0.00122949,0.999999,0.5533035221242272,75,2,0.6,8.0,-0.047762259659235085
-4.02042,-1.25232,6.75111,-0.5050796629456239,-0.1551566673639975,0.8490117447074761,8.14835e-05,0.00122949,0.999999,0.5571242185010156,75,2,0.6,8.0,-0.04326897583561706
-4.05962,-1.25222,6.73361,-0.5063350656485962,-0.15526827093300455,0.8482432229827167,8.14835e-05,0.00122949,0.999999,0.55857645404231,75,2,0.6,8.0,-0.038211689268547566
-4.25982,-1.25171,6.59391,-0.5300534069837197,-0.15567277155320006,0.8335522622738759,8.14835e-05,0.00122949,0.999999,0.5857150172685733,75,2,0.6,8.0,-0.05062936801912521
-4.37882,-1.25142,6.52471,-0.5474018315127526,-0.15324282576727616,0.8227198011518528,8.14835e-05,0.00122949,0.999999,0.6050280178930183,75,2,0.6,8.0,-0.04311887779514478
-4.41802,-1.25132,6.50441,-0.552180981081393,-0.15617951360651863,0.8189652762245915,8.14835e-05,0.00122949,0.999999,0.6116047746076488,75,2,0.6,8.0,-0.03808742129756837
-4.49822,-1.25112,6.45701,-0.5654107053349796,-0.15429698801002006,0.8102488344845901,8.14835e-05,0.00122949,0.999999,0.6266229963707732,75,2,0.6,8.0,-0.031796779517981655
-4.22832,-2.20791,6.37271,-0.530500878928159,-0.2785135218620732,0.8006241537678184,8.14835e-05,0.00122949,0.999999,0.6431045218818803,75,2,0.6,8.0,-0.03978710494499449
-4.18832,-2.20802,6.39341,-0.5264261391785958,-0.27676000525921957,0.8039150573776029,8.14835e-05,0.00122949,0.999999,0.6375923349133931,75,2,0.6,8.0,-0.04430592777097786
-3.91032,-2.20871,6.56061,-0.49563981325964146,-0.2778296748333499,0.8228923667734092,8.14835e-05,0.00122949,0.999999,0.6049865160542721,75,2,0.6,8.0,-0.049490208885973885
-4.45232,-3.52262,5.56391,-0.5631727285611831,-0.44095170047233245,0.6988548316034671,8.14835e-05,0.00122949,0.999999,0.797823664149444,75,2,0.6,8.0,-0.050842841225240853
-4.13072,-3.52332,5.82581,-0.5173396234588064,-0.43920639733771105,0.7344776746349266,8.14835e-05,0.00122949,0.999999,0.746757897286348,75,2,0.6,8.0,-0.0365400925916628
-4.01052,-3.52362,5.90461,-0.5071179594161275,-0.4390802329503817,0.7416467651583613,8.14835e-05,0.00122949,0.999999,0.7361411418395093,75,2,0.6,8.0,-0.03981232464334461
-3.92962,-3.52382,5.95461,-0.4982297186122278,-0.4378944548549543,0.7483418963941968,8.14835e-05,0.00122949,0.999999,0.7261108085675247,75,2,0.6,8.0,-0.04282707308054068
-3.85062,-3.52401,6.00861,-0.48673542605452746,-0.4339439521087228,0.7581433053531371,8.14835e-05,0.00122949,0.999999,0.7112146926522267,75,2,0.6,8.0,-0.04077170847575218
-3.45262,-3.52491,6.24751,-0.44372000398085765,-0.4314228647997604,0.785485117488037,8.14835e-05,0.00122949,0.999999,0.6682326591211778,75,2,0.6,8.0,-0.03903544960788086
-3.33232,-3.52522,6.32341,-0.4249605547943314,-0.4353093035197502,0.7936714289541007,8.14835e-05,0.00122949,0.999999,0.6549128873022275,75,2,0.6,8.0,-0.03024174401130253
-3.21452,-3.52552,6.38861,-0.4048920279131884,-0.43827315264806477,0.8024830773295297,8.14835e-05,0.00122949,0.999999,0.6403099418281353,75,2,0.6,8.0,-0.026495887446975175
-3.13572,-3.52572,6.42811,-0.3945516871269055,-0.44226278103762856,0.8054393823834137,8.14835e-05,0.00122949,0.999999,0.6353519737727525,75,2,0.6,8.0,-0.02603990423202518
-2.97782,-3.52612,6.51911,-0.3759892878770516,-0.4376008421791548,0.8167848910978961,8.14835e-05,0.00122949,0.999999,0.6159662005113401,75,2,0.6,8.0,-0.01252671998835364
-2.70362,-3.52691,6.61561,-0.3486478101823192,-0.43826023809074477,0.8284761120054804,8.14835e-05,0.00122949,0.999999,0.5954285133788502,75,2,0.6,8.0,-0.030373225514258806
0.0553836,-1.20342,7.88631,-0.010345099609255656,-0.15824372982936133,0.9873458871559483,8.14835e-05,0.00122949,0.999999,0.1604860163149876,75,2,0.6,8.0,-0.022207544962769887
-0.0984164,-1.20292,7.86891,-0.014545321586713752,-0.154766335275024,0.9878440236623786,8.14835e-05,0.00122949,0.999999,0.15731301386887053,75,2,0.6,8.0,-0.03906746026013863
-0.367416,-1.20211,7.88571,-0.041008319988918025,-0.14419793423327557,0.9886987779169865,8.14835e-05,0.00122949,0.999999,0.1516881450906891,75,2,0.6,8.0,-0.014733243450409717
-0.521216,-1.20162,7.88791,-0.058413103320311174,-0.13779032761344112,0.9887374449148122,8.14835e-05,0.00122949,0.999999,0.15138921127728708,75,2,0.6,8.0,-0.004083485230977679
-0.675116,-1.20112,7.85301,-0.08618305992098042,-0.13522952214843403,0.9870589934356319,8.14835e-05,0.00122949,0.999999,0.16213457274104054,75,2,0.6,8.0,-0.027030858710413774
-0.790916,-1.20082,7.81991,-0.09835154697152432,-0.13567406989735775,0.9858597871735082,8.14835e-05,0.00122949,0.999999,0.1694111753555004,75,2,0.6,8.0,-0.048993195855256744
-1.05972,-1.19992,7.84521,-0.13510622146081677,-0.13163986862051216,0.9820474804774741,8.14835e-05,0.00122949,0.999999,0.19068901144206266,75,2,0.6,8.0,0.0068804430252367155
-1.21412,-1.19951,7.79171,-0.15607263590713744,-0.13360742512697799,0.9786676597660399,8.14835e-05,0.00122949,0.999999,0.20778656751743815,75,2,0.6,8.0,-0.023556159628527418
-1.25272,-1.19941,7.78371,-0.1632591898323994,-0.1357343643110509,0.9772014220621782,8.14835e-05,0.00122949,0.999999,0.2147932016645306,75,2,0.6,8.0,-0.025413295311160766
-1.29122,-1.19922,7.78201,-0.17134176615613972,-0.13926373828771402,0.9753192351064475,8.14835e-05,0.00122949,0.999999,0.22347455275712916,75,2,0.6,8.0,-0.020961377653320845
-1.75522,-1.19792,7.66341,-0.22548946704602232,-0.13545913703129916,0.9647825259850205,8.14835e-05,0.00122949,0.999999,0.2668858091711181,75,2,0.6,8.0,-0.0474115910038444
-1.87012,-1.19751,7.65741,-0.2409554396758832,-0.14193477496575266,0.9601015549128242,8.14835e-05,0.00122949,0.999999,0.2841271878421498,75,2,0.6,8.0,-0.027089181321541922
-2.14212,-1.19682,7.57221,-0.2757457663875749,-0.14685804839767694,0.949945780526528,8.14835e-05,0.00122949,0.999999,0.31838555855663747,75,2,0.6,8.0,-0.040136905015263125
-2.25752,-1.19651,7.53281,-0.2853532862390045,-0.14535902782538174,0.9473353445650915,8.14835e-05,0.00122949,0.999999,0.32661858685787426,75,2,0.6,8.0,-0.045676695871609496
-2.29682,-1.19632,7.52721,-0.2920785327299235,-0.14886357935173572,0.9447379348056923,8.14835e-05,0.00122949,0.999999,0.3346345608311649,75,2,0.6,8.0,-0.03975791581059962
-2.41252,-1.19602,7.49061,-0.3117325793823851,-0.1437986908219209,0.9392256041385938,8.14835e-05,0.00122949,0.999999,0.35101935296564624,75,2,0.6,8.0,-0.0401033447098067
-2.53012,-1.19571,7.46921,-0.32781583220481575,-0.1425578065815797,0.933924007582262,8.14835e-05,0.00122949,0.999999,0.3661258061317804,75,2,0.6,8.0,-0.023764820255109953
-2.60622,-1.19542,7.46471,-0.3331513525311605,-0.14148972289071104,0.9321967789168595,8.14835e-05,0.00122949,0.999999,0.3709180694646759,75,2,0.6,8.0,-0.00354409448160542
-2.68372,-1.19522,7.45611,-0.3395587120397675,-0.14395669979653358,0.9295032811462179,8.14835e-05,0.00122949,0.999999,0.3782890193109079,75,2,0.6,8.0,0.014017732629495683
-2.84112,-1.19481,7.36681,-0.3573741696666965,-0.14265749817148113,0.9230019182377104,8.14835e-05,0.00122949,0.999999,0.3955190601636242,75,2,0.6,8.0,-0.014424042900849976
-2.99732,-1.19442,7.28981,-0.3801964681482978,-0.1471055861337994,0.9131322971704549,8.14835e-05,0.00122949,0.999999,0.42041471030861743,75,2,0.6,8.0,-0.028055685411493947
-3.03642,-1.19432,7.26981,-0.38602993731357493,-0.14971282454390336,0.9102565339863066,8.14835e-05,0.00122949,0.999999,0.42741501234115964,75,2,0.6,8.0,-0.031538158784972126
-3.07502,-1.19422,7.25001,-0.3907803812521432,-0.15263408319412194,0.9077408937995023,8.14835e-05,0.00122949,0.999999,0.43345342465122716,75,2,0.6,8.0,-0.03479100030011839
-3.23272,-1.19381,7.16991,-0.4094223642986891,-0.147405095815212,0.9003582983122773,8.14835e-05,0.00122949,0.999999,0.4506985890405176,75,2,0.6,8.0,-0.04492172743724687
-3.31102,-1.19362,7.13941,-0.4165657962100325,-0.14533587650488933,0.8974131826691968,8.14835e-05,0.00122949,0.999999,0.4574087485474026,75,2,0.6,8.0,-0.04017856400660236
-3.42732,-1.19332,7.10061,-0.432351273578103,-0.14808668670461003,0.8894620337351352,8.14835e-05,0.00122949,0.999999,0.4751063954537792,75,2,0.6,8.0,-0.02571649758425032
-4.10052,-1.19162,6.70651,-0.5131423780329013,-0.14558607423491624,0.8458661802292397,8.14835e-05,0.00122949,0.999999,0.5630243816882226,75,2,0.6,8.0,-0.04943405316954852
-4.49842,-1.19062,6.45131,-0.5654680338617241,-0.14758032580539646,0.8114591487658076,8.14835e-05,0.00122949,0.999999,0.6245420019555759,75,2,0.6,8.0,-0.04558240994980167
-4.57932,-1.19052,6.38081,-0.5804630153210153,-0.15030156962555907,0.8002950243582225,8.14835e-05,0.00122949,0.999999,0.6433972277175848,75,2,0.6,8.0,-0.05630779870594349
-2.62462,-3.52712,6.64361,-0.3392442258582192,-0.43657335214731013,0.8332569012115761,8.14835e-05,0.00122949,0.999999,0.5868449936431785,75,2,0.6,8.0,-0.033397244063188225
-2.58552,-3.52722,6.65791,-0.3332446467735494,-0.43841019998472874,0.8347122270256513,8.14835e-05,0.00122949,0.999999,0.5842147954007586,75,2,0.6,8.0,-0.03420059461073244
-2.46822,-3.52752,6.70521,-0.30763067991283183,-0.44183879136930404,0.842699143952147,8.14835e-05,0.00122949,0.999999,0.5695750776156414,75,2,0.6,8.0,-0.03160314348613724
-2.38932,-3.52771,6.74081,-0.2941970971754331,-0.4422234557098196,0.8472818204314395,8.14835e-05,0.00122949,0.999999,0.5610188062818605,75,2,0.6,8.0,-0.02553403903433793
-2.35012,-3.52781,6.75731,-0.2923440158041365,-0.44365318746290844,0.8471757938453578,8.14835e-05,0.00122949,0.999999,0.5612210733836707,75,2,0.6,8.0,-0.023174450534849456
-2.27222,-3.52802,6.78261,-0.28262464455209196,-0.44340199458670165,0.8505986018612647,8.14835e-05,0.00122949,0.999999,0.554754520507881,75,2,0.6,8.0,-0.024179837728285136
-1.92132,-3.52902,6.89571,-0.24075161332774808,-0.4409466943210473,0.8646413553881329,8.14835e-05,0.00122949,0.999999,0.5274786720591275,75,2,0.6,8.0,-0.01900575699368101
-1.84332,-3.52932,6.90661,-0.23178433797679981,-0.4385124726376603,0.8683218481702863,8.14835e-05,0.00122949,0.999999,0.5201127406837175,75,2,0.6,8.0,-0.02784909971593663
-1.80442,-3.52942,6.90821,-0.22586294538066393,-0.4407210342726875,0.8687640069970576,8.14835e-05,0.00122949,0.999999,0.5192268540421181,75,2,0.6,8.0,-0.035321571030001664
-1.29922,-3.53092,7.01691,-0.15991247794170457,-0.4475533471137954,0.8798431683463721,8.14835e-05,0.00122949,0.999999,0.4964495411062481,75,2,0.6,8.0,-0.038065900618116544
-1.22212,-3.53112,7.02681,-0.15245418584907866,-0.44839374814583366,0.88073876254019,8.14835e-05,0.00122949,0.999999,0.49456687438146557,75,2,0.6,8.0,-0.04145462255193255
-0.989016,-3.53182,7.07151,-0.1262535465789997,-0.4464167517776154,0.8858736510973488,8.14835e-05,0.00122949,0.999999,0.48362784555397237,75,2,0.6,8.0,-0.0339370551849143
-0.950216,-3.53192,7.07821,-0.12462254886905369,-0.4454767403953335,0.886577517242643,8.14835e-05,0.00122949,0.999999,0.4821091691083683,75,2,0.6,8.0,-0.03266505428847921
-0.756716,-3.53251,7.09571,-0.10973061925446106,-0.44380876378081485,0.88937785692549,8.14835e-05,0.00122949,0.999999,0.47602696548686435,75,2,0.6,8.0,-0.037566552312289225
-0.679516,-3.53272,7.11431,-0.10340357042306189,-0.44553900669432484,0.8892708783816083,8.14835e-05,0.00122949,0.999999,0.47626387751392063,75,2,0.6,8.0,-0.027844747575723083
0.0554836,-1.14502,7.84611,-0.010801207133917374,-0.15433741145252475,0.9879591577340554,8.14835e-05,0.00122949,0.999999,0.1565710593229519,75,2,0.6,8.0,-0.07058694717137559
-0.251916,-1.14392,7.89051,-0.03280356841230806,-0.1360268623734673,0.9901619153513473,8.14835e-05,0.00122949,0.999999,0.14160150805747027,75,2,0.6,8.0,-0.023022959945540933
-0.521216,-1.14312,7.87741,-0.06134262865634993,-0.127597879927871,0.9899272008321833,8.14835e-05,0.00122949,0.999999,0.1431987284683667,75,2,0.6,8.0,-0.023034551838900796
-0.713216,-1.14251,7.87101,-0.09266271105478245,-0.12233864306580484,0.9881532666508752,8.14835e-05,0.00122949,0.999999,0.1551099426704512,75,2,0.6,8.0,-0.014588014206404765
-0.752116,-1.14241,7.85931,-0.09455682421431313,-0.11827267565913444,0.9884688063803191,8.14835e-05,0.00122949,0.999999,0.15302216769803215,75,2,0.6,8.0,-0.022561014858465178
-0.867416,-1.14202,7.83991,-0.10742885397057347,-0.11627837294020091,0.9873896805825695,8.14835e-05,0.00122949,0.999999,0.15993765468950666,75,2,0.6,8.0,-0.030005708561893663
-1.25252,-1.14082,7.78871,-0.15767057493471281,-0.11886710823048191,0.9803114813061612,8.14835e-05,0.00122949,0.999999,0.19957086479366018,75,2,0.6,8.0,-0.029160641005240073
-1.36782,-1.14051,7.77761,-0.18184351056186795,-0.1240989345480091,0.9754652182987278,8.14835e-05,0.00122949,0.999999,0.22273436620300627,75,2,0.6,8.0,-0.021095819312027864
-1.40662,-1.14042,7.77411,-0.19109870696970213,-0.12287042639113004,0.9738501643029946,8.14835e-05,0.00122949,0.999999,0.22992809321449373,75,2,0.6,8.0,-0.017774502502450495
-1.79262,-1.13922,7.69481,-0.2260454353793012,-0.13085064593097825,0.9652883349567776,8.14835e-05,0.00122949,0.999999,0.26493965672369163,75,2,0.6,8.0,-0.01743088918736646
-1.94792,-1.13881,7.64521,-0.2534951789781561,-0.13858663035901175,0.9573577910690273,8.14835e-05,0.00122949,0.999999,0.2937458618619879,75,2,0.6,8.0,-0.028769449664625135
-2.18012,-1.13822,7.57291,-0.27845934007317685,-0.13765915095811243,0.9505316165617544,8.14835e-05,0.00122949,0.999999,0.316473107311754,75,2,0.6,8.0,-0.03774944812083891
-2.33532,-1.13771,7.52731,-0.2968215594495411,-0.13697506131756448,0.9450580905018443,8.14835e-05,0.00122949,0.999999,0.33361491296198165,75,2,0.6,8.0,-0.037054603816500276
-2.37382,-1.13762,7.51291,-0.30686997335963795,-0.13605814423750962,0.9419761147910811,8.14835e-05,0.00122949,0.999999,0.34290141976359917,75,2,0.6,8.0,-0.03928286365480815
-2.52892,-1.13722,7.46561,-0.32664785569354843,-0.1351526590375552,0.9354330211863836,8.14835e-05,0.00122949,0.999999,0.36186126918081557,75,2,0.6,8.0,-0.03607895776835335
-2.87972,-1.13622,7.33211,-0.3606216184924086,-0.1374595660877897,0.9225274608199325,8.14835e-05,0.00122949,0.999999,0.3967328331429811,75,2,0.6,8.0,-0.04112946336604839
-3.03602,-1.13582,7.27471,-0.3837797745220299,-0.1477504996223901,0.9115277694777895,8.14835e-05,0.00122949,0.999999,0.42433154333793166,75,2,0.6,8.0,-0.03577310111646792
-3.11412,-1.13562,7.22881,-0.39910775385682046,-0.14482720152156142,0.9053938825234003,8.14835e-05,0.00122949,0.999999,0.43898715235397545,75,2,0.6,8.0,-0.04744882601186884
-3.15402,-1.13552,7.20491,-0.4019180928103917,-0.14691200027021192,0.9038134270126011,8.14835e-05,0.00122949,0.999999,0.44269758610046295,75,2,0.6,8.0,-0.05342992613165176
-3.19292,-1.13542,7.18371,-0.4084052160070857,-0.14220220057109445,0.901656095022345,8.14835e-05,0.00122949,0.999999,0.4476950206912411,75,2,0.6,8.0,-0.0571034208608765
-3.27202,-1.13522,7.15131,-0.4162364327956287,-0.14275077850985532,0.8979807610680756,8.14835e-05,0.00122949,0.999999,0.45611458490179374,75,2,0.6,8.0,-0.05417883130384116
-3.54392,-1.13442,7.05231,-0.449552546790126,-0.1391551089883372,0.8823482097884913,8.14835e-05,0.00122949,0.999999,0.49041001881458796,75,2,0.6,8.0,-0.026208302262968886
-3.66492,-1.13421,6.96011,-0.46129639007016204,-0.1390394123947828,0.8762840192021937,8.14835e-05,0.00122949,0.999999,0.5031359009960832,75,2,0.6,8.0,-0.05259777395154064
-3.82142,-1.13382,6.88671,-0.48629720610057664,-0.13997697912066737,0.862508824682406,8.14835e-05,0.00122949,0.999999,0.5310092051468588,75,2,0.6,8.0,-0.04289165381669591
-3.90092,-1.13362,6.84141,-0.49608853197824365,-0.14337418002970867,0.8563527386191275,8.14835e-05,0.00122949,0.999999,0.543052305336642,75,2,0.6,8.0,-0.043420210988895036
-3.94082,-1.13352,6.81061,-0.4997790892944854,-0.14512294969051215,0.8539087722802126,8.14835e-05,0.00122949,0.999999,0.5477681198188474,75,2,0.6,8.0,-0.05019884305902966
-3.98082,-1.13342,6.78281,-0.5022964809447459,-0.1437629203629963,0.8526608164793473,8.14835e-05,0.00122949,0.999999,0.5501569320437126,75,2,0.6,8.0,-0.05405258858957751
-4.17612,-1.13292,6.69871,-0.5179559752342882,-0.14056622227195056,0.843778848321816,8.14835e-05,0.00122949,0.999999,0.5669123056009627,75,2,0.6,8.0,-0.02527733116066333
-4.41852,-1.13231,6.50981,-0.5537231661072709,-0.14243087483337621,0.8204292176722735,8.14835e-05,0.00122949,0.999999,0.6090211818836158,75,2,0.6,8.0,-0.051222033381483456
-4.57802,-1.13192,6.40891,-0.5785036132794547,-0.13738899622894465,0.8040260152120814,8.14835e-05,0.00122949,0.999999,0.6371250497756694,75,2,0.6,8.0,-0.04301329680010113
-4.65792,-1.13172,6.34891,-0.5893423354880346,-0.1389476564524838,0.7958449348760545,8.14835e-05,0.00122949,0.999999,0.650756950731138,75,2,0.6,8.0,-0.044771086078037925
-0.253716,-3.53402,7.15801,-0.04358136243698134,-0.44432544613408553,0.8948047623732689,8.14835e-05,0.00122949,0.999999,0.46403419400110285,75,2,0.6,8.0,-0.013087184076940872
-0.0990164,-3.53452,7.16531,-0.02773802044133618,-0.44463560032458815,0.8952819584611258,8.14835e-05,0.00122949,0.999999,0.4629648010625017,75,2,0.6,8.0,-0.009736970914602239
-4.39152,-2.56542,6.14411,-0.5489651597381879,-0.31389416792555647,0.7746661892298826,8.14835e-05,0.00122949,0.999999,0.6852909474773098,75,2,0.6,8.0,-0.023978725022105074
-4.27292,-2.56572,6.22491,-0.5332189046077882,-0.31518118789951205,0.7850722377992505,8.14835e-05,0.00122949,0.999999,0.6686800052077276,75,2,0.6,8.0,-0.025649308382531544
0.0552837,-1.08512,7.88481,-0.01154364565224227,-0.1481495119381855,0.9888976015531299,8.14835e-05,0.00122949,0.999999,0.1503830585901365,75,2,0.6,8.0,-0.04068027793922013
-0.213816,-1.08432,7.87091,-0.03640340454087076,-0.12843385465377297,0.9910497147553231,8.14835e-05,0.00122949,0.999999,0.13509836116684218,75,2,0.6,8.0,-0.051874977558794555
-0.252216,-1.08412,7.87111,-0.03893175219800739,-0.1282661318817237,0.9909753367682231,8.14835e-05,0.00122949,0.999999,0.13564946733369013,75,2,0.6,8.0,-0.05057852940504848
-0.482716,-1.08342,7.90591,-0.056155908155407656,-0.12594466834313653,0.9904465934593237,8.14835e-05,0.00122949,0.999999,0.13949443310805268,75,2,0.6,8.0,-0.005612808904237099
-0.751916,-1.08252,7.86861,-0.09526555356489798,-0.10765490699870527,0.9896135080439604,8.14835e-05,0.00122949,0.999999,0.14523008908220003,75,2,0.6,8.0,-0.021763944733397267
-0.790416,-1.08242,7.86891,-0.09892186015082781,-0.10847665524662191,0.989164941175538,8.14835e-05,0.00122949,0.999999,0.14830632852489073,75,2,0.6,8.0,-0.017761272828530572
-1.06012,-1.08162,7.81981,-0.14130107642213674,-0.10489873060846265,0.9843933472543782,8.14835e-05,0.00122949,0.999999,0.17770420833371248,75,2,0.6,8.0,-0.03487698306548381
-1.17552,-1.08132,7.80021,-0.1417683519522637,-0.10162403524614579,0.984669634875083,8.14835e-05,0.00122949,0.999999,0.17611161214537016,75,2,0.6,8.0,-0.037941456074315205
-1.21412,-1.08122,7.79201,-0.15184624518681955,-0.10344973813819396,0.9829755182616724,8.14835e-05,0.00122949,0.999999,0.1855484971575676,75,2,0.6,8.0,-0.04019196821305204
-1.29142,-1.08091,7.77431,-0.1631039588665356,-0.10697067401785032,0.9807927270846936,8.14835e-05,0.00122949,0.999999,0.19705620171256183,75,2,0.6,8.0,-0.04537694038240492
-1.79232,-1.07952,7.68551,-0.2231126036735988,-0.12554570093569528,0.9666742176444723,8.14835e-05,0.00122949,0.999999,0.2595680006806063,75,2,0.6,8.0,-0.03477317505019162
-1.91012,-1.07911,7.63821,-0.2430388863217089,-0.1278857960690663,0.9615494386142007,8.14835e-05,0.00122949,0.999999,0.27885341900443683,75,2,0.6,8.0,-0.05296981189828376
-1.98652,-1.07892,7.62621,-0.2588700612296152,-0.12923984769452998,0.9572269078786231,8.14835e-05,0.00122949,0.999999,0.2941594405060277,75,2,0.6,8.0,-0.045792997356682186
-2.06312,-1.07872,7.62481,-0.26970166208481877,-0.1284578050094003,0.9543372599877117,8.14835e-05,0.00122949,0.999999,0.3039670828551508,75,2,0.6,8.0,-0.02768361710976741
-2.49082,-1.07752,7.48801,-0.3210672226947553,-0.12804792105089152,0.9383600420018007,8.14835e-05,0.00122949,0.999999,0.35347424695348484,75,2,0.6,8.0,-0.03535767388767219
-2.68532,-1.07692,7.40771,-0.3406454380122229,-0.13424032170131722,0.9305590908647272,8.14835e-05,0.00122949,0.999999,0.3753876123060887,75,2,0.6,8.0,-0.047335815407518744
-2.84072,-1.07652,7.35661,-0.3564429252001469,-0.13697746327703567,0.924221626899604,8.14835e-05,0.00122949,0.999999,0.39232278764908074,75,2,0.6,8.0,-0.04083571466827873
-2.95772,-1.07621,7.32131,-0.3673995546933658,-0.14039589084823417,0.9194055476469822,8.14835e-05,0.00122949,0.999999,0.4047463834301288,75,2,0.6,8.0,-0.030814616373890935
-2.99652,-1.07612,7.30261,-0.37514133669340544,-0.14023448640795474,0.9162986774659133,8.14835e-05,0.00122949,0.999999,0.41256594012602743,75,2,0.6,8.0,-0.03349015083141982
-3.26962,-1.07531,7.20761,-0.41456534871185946,-0.13725445455917643,0.8996092409213443,8.14835e-05,0.00122949,0.999999,0.45238757333979096,75,2,0.6,8.0,-0.012738363331272318
-3.42772,-1.07492,7.11881,-0.43525749052005214,-0.1298911212401904,0.8908867568715751,8.14835e-05,0.00122949,0.999999,0.47193361483221014,75,2,0.6,8.0,-0.02615693527267826
-3.54472,-1.07462,7.06721,-0.44886028710893333,-0.12801823682309701,0.8843844038070727,8.14835e-05,0.00122949,0.999999,0.48603968645264584,75,2,0.6,8.0,-0.0209458450954223
-3.62412,-1.07441,7.01561,-0.45596057142058544,-0.13150062417952668,0.8802315281505247,8.14835e-05,0.00122949,0.999999,0.4948666912025026,75,2,0.6,8.0,-0.03084783087937293
-4.41642,-1.07251,6.53561,-0.5572723262348522,-0.1349228643399984,0.8192944373612497,8.14835e-05,0.00122949,0.999999,0.6109864386725024,75,2,0.6,8.0,-0.03952002774958263
-4.53752,-1.07222,6.45031,-0.5705596154998772,-0.13062257410717654,0.8108017441361651,8.14835e-05,0.00122949,0.999999,0.6256305277990433,75,2,0.6,8.0,-0.04102754277287346
-4.03372,-2.56632,6.34881,-0.5023117293657009,-0.32146471924308956,0.8027100104169628,8.14835e-05,0.00122949,0.999999,0.6397027594252375,75,2,0.6,8.0,-0.05240389822809366
-3.83492,-2.56682,6.48921,-0.4889829482909973,-0.3179145863394026,0.8122967389281398,8.14835e-05,0.00122949,0.999999,0.6234562352780909,75,2,0.6,8.0,-0.037272907922814014
-3.59682,-2.56732,6.63991,-0.4580770532280992,-0.31742662542147165,0.8303046132470889,8.14835e-05,0.00122949,0.999999,0.5919102334897196,75,2,0.6,8.0,-0.023995304483578117
-3.51772,-2.56752,6.68921,-0.45069593018200316,-0.32005660455182494,0.8333288356946107,8.14835e-05,0.00122949,0.999999,0.5864726742623143,75,2,0.6,8.0,-0.01801757876528498
-3.39882,-2.56781,6.75351,-0.4370084724185464,-0.32044716797684536,0.8404386994719056,8.14835e-05,0.00122949,0.999999,0.5734975015828698,75,2,0.6,8.0,-0.015294438202495542
-3.32082,-2.56801,6.79501,-0.4258790986956708,-0.3241068864513898,0.8447376630936667,8.14835e-05,0.00122949,0.999999,0.5655316385025289,75,2,0.6,8.0,-0.012842700146690866
-2.96772,-2.56902,6.92601,-0.37266938180154313,-0.3266151907959334,0.8685850844960393,8.14835e-05,0.00122949,0.999999,0.5193288032758292,75,2,0.6,8.0,-0.039042753606826075
-2.61652,-2.57002,7.06351,-0.33294620948708586,-0.3223791135210854,0.8861255716621322,8.14835e-05,0.00122949,0.999999,0.4827936639006947,75,2,0.6,8.0,-0.04108341349778932
-2.57672,-2.57012,7.08051,-0.32759203265541137,-0.3211009296605788,0.8885818212814214,8.14835e-05,0.00122949,0.999999,0.4774715693584932,75,2,0.6,8.0,-0.03893068533504085
-2.53672,-2.57022,7.09331,-0.3228565574848212,-0.3214788124580454,0.8901769579300597,8.14835e-05,0.00122949,0.999999,0.4739888173751918,75,2,0.6,8.0,-0.04035013565923329
-2.45942,-2.57042,7.11931,-0.3107570799995944,-0.32295289245376885,0.8939415341541471,8.14835e-05,0.00122949,0.999999,0.46567546794273484,75,2,0.6,8.0,-0.04133298919347972
-2.26452,-2.57092,7.17891,-0.2824247967005454,-0.32247858379743377,0.9034621171917818,8.14835e-05,0.00122949,0.999999,0.44399706164986935,75,2,0.6,8.0,-0.04547743325220033
-2.14812,-2.57132,7.22141,-0.26718832631972356,-0.3228735151842252,0.9079444319290949,8.14835e-05,0.00122949,0.999999,0.43344318433378515,75,2,0.6,8.0,-0.03916659734045158
-1.91412,-2.57192,7.30461,-0.24772094270176434,-0.3178577096697661,0.9152053381348034,8.14835e-05,0.00122949,0.999999,0.41579955567766763,75,2,0.6,8.0,-0.022785253429614905
-0.0983164,-1.02581,7.92931,-0.024403783958622964,-0.12489817700415237,0.9918693970022163,8.14835e-05,0.00122949,0.999999,0.12882838506446745,75,2,0.6,8.0,-0.004006669168053811
-0.136716,-1.02562,7.92531,-0.026768308604925142,-0.11663951493075192,0.9928135178426764,8.14835e-05,0.00122949,0.999999,0.12117593372031395,75,2,0.6,8.0,-0.0074330628291887635
-0.367416,-1.02491,7.89791,-0.0410738000700155,-0.12188761842119808,0.9916936782209599,8.14835e-05,0.00122949,0.999999,0.13017094513140517,75,2,0.6,8.0,-0.02739582110989236
-0.674916,-1.02401,7.86781,-0.09316654274785101,-0.10400584164188188,0.99020340345647,8.14835e-05,0.00122949,0.999999,0.14106240548312454,75,2,0.6,8.0,-0.03717749266907244
-0.713416,-1.02391,7.86541,-0.09280520234013072,-0.10461948300202815,0.9901726910973639,8.14835e-05,0.00122949,0.999999,0.1412858318972149,75,2,0.6,8.0,-0.03620514168929656
-1.13722,-1.02262,7.81081,-0.1440292292518939,-0.09577421777375966,0.9849278553939521,8.14835e-05,0.00122949,0.999999,0.17459127952769887,75,2,0.6,8.0,-0.04086852421069764
